# 3D point list with one line of data per point:
#   POINT3D_ID, X, Y, Z, R, G, B, ERROR, TRACK[] as (IMAGE_ID, POINT2D_IDX)
# Number of points: 385, mean track length: 6.4770520741394524
2548 1.2858442596332702 1.2135281092612349 11.062668070733851 114 58 62 1.3444117147476227 56 184 58 210 51 170 55 424 50 122 36 269 64 453 65 469 43 235
2549 2.0788547883895236 0.26089000845521426 11.677362672274736 232 188 185 0.49904882257840483 6 126 16 106 7 73 36 84 60 59 57 51 56 82 59 74 55 53 76 58 58 61 52 63 54 66 53 47 51 77 50 53 34 65 43 71 46 49 40 47 42 67 47 33 1 134 2 85 35 50
2550 2.3132776530258798 1.2443813729966837 12.221021608689318 124 76 78 0.95658259608259955 56 76 59 111 52 67 36 119 13 355 16 397 8 299 7 180 15 213 14 274 64 135 65 155 11 178 62 188 61 113 60 106 34 97 24 180
2551 1.0054415463273514 1.0278047393084118 10.7255746436186 165 111 119 1.119375412284658 57 272 76 359 51 265 50 265 36 208 13 427 16 542 64 286 34 233
2552 1.1148854870196638 1.6005705521363895 10.949486412043768 112 60 64 1.0569576674769445 57 265 53 216 36 212 16 550 8 442 7 285 15 297 5 298 9 255 14 338 11 270 18 242 31 261 64 306 65 343 62 248 61 285 60 198 21 265 23 228 10 290 19 209 34 221 4 131 25 226 26 235 24 219 27 126 29 188
2553 0.93763499834083985 1.0375845675811732 10.84630735091827 138 83 93 0.9284821209358628 54 341 50 164 36 268 16 470 64 221 34 254
2554 1.2663356534343491 0.82819560330179609 10.926969110741965 152 87 98 0.91727594605653628 55 336 53 327 36 299 64 385 65 378 62 292
2555 1.7609578054409303 0.16818452718735052 11.524955213100878 147 96 102 2.7046459492949855 60 234 52 205 54 285 36 307 57 248 56 381 54 336 43 174
2556 1.3827401207505121 -0.56656439177410056 11.060608224665957 184 112 118 1.8295161780246076 56 147 59 115 54 108 64 364 65 350 56 363 55 508 76 480 58 348 55 315 76 397 36 111 57 149 56 118 59 102 34 139 43 95
2557 1.2842514392837401 -0.7385421316201809 10.922860245986589 160 97 101 1.0156905586140221 56 170 59 166 55 123 76 133 58 140 52 140 54 131 53 133 36 110 57 148 6 166 16 313 15 210 8 360 5 174 12 219 14 257 287 482 18 162 31 256 64 180 65 223 62 177 61 106 60 160 21 161 23 212 17 204 19 131 34 200 43 118 42 117 1 241 3 167
2558 -0.30126060226238199 -14.341452796596135 33.017855551107644 155 105 96 0.42882669223529368 60 269 36 217
2559 9.8098838841513558 2.8477030853487149 12.878514861641472 0 0 0 0.34138039028054035 59 2 61 2
2560 1.0693373614342663 2.391168628537002 11.459461991483385 124 71 77 1.1957387301364408 36 11 57 9 34 9 43 10 3 16 1 12
2561 3.0812984668323509 2.127750161807171 13.68850921541895 53 18 15 0.89838823023702508 6 7 34 10 2 11
2562 1.8330074779557655 1.5148140104653223 11.820921671010522 128 77 82 0.41198256662396932 32 9 36 5 34 11
2563 0.70080974102607874 -4.0197902589959549 11.197068031661308 147 68 64 0.55949304782903464 36 15 34 19 43 13 2 20
2565 -0.4452827249631548 -2.2377121985877806 6.911732133385323 238 144 144 1.4980105480871591 32 169 34 55
2566 1.148930140192961 -0.71264450869963081 10.972747243026173 156 85 89 1.0223779766574663 57 88 34 82 43 66
2567 0.18855940653307243 -5.4249701540247406 10.917900911105212 190 113 103 0.83460470166443168 36 91 34 103 1 107 2 65
2569 1.1724152323206314 0.43726497702328776 10.657900652774705 142 83 91 0.2768817182109839 36 182 34 107 43 159
2572 1.1603685861180459 0.358726217242334 10.431189240163244 142 83 91 1.0348571181986703 36 181 57 85 34 122 43 143
2573 0.51130675647656154 -5.8751539368715378 10.938792779395708 141 65 56 0.38106876363837855 36 126 34 125 43 108
2574 5.7200833898872752 -6.1126629637123946 19.227145294043254 63 31 21 0.73993943775483917 32 133 34 126 2 342
2576 0.20473366086040706 -5.8497484992996549 10.852267291234794 166 92 81 1.4994879462309496 36 169 34 141 1 261
2577 0.48372599136865541 -1.317155142504765 10.482071815978758 209 131 137 0.37460383993873286 57 100 34 158 42 119
2578 0.021648025663339093 0.76202558836402945 10.130972911639917 190 119 125 0.72365528447027061 32 195 34 164
2579 -0.78597435287361683 0.11986028748189019 9.8383328497129181 185 100 97 2.3490185525242344 6 227 34 196
2580 0.99379959113746785 -0.72701989335624817 10.71412318576567 182 110 114 0.38416152992677066 36 178 34 199 43 150
2581 6.4513049032968546 -6.9943380485737006 20.513054341818819 70 34 18 1.058437230194275 34 211 43 198 54 303 50 242
2582 2.100022933025151 -4.710401227568223 14.793521917272001 114 56 54 0.36221905356102696 34 217 2 119
2584 -0.30126060226238172 -14.341452796596146 33.017855551107672 0 0 0 0.42882669223526571 60 283 36 254
2585 0.37427356997357103 0.9055258104048598 10.214057888024094 156 86 88 0.43873588856201762 56 304 34 274
2586 6.8428329182161374 -7.6082736573839229 21.278400085944927 36 6 1 1.5126076642090085 36 216 34 296 43 193
2587 7.8370305158714055 -7.6941749100020598 23.257080348148691 71 29 30 1.039124822905837 61 472 34 302
2588 9.5633294095166619 2.7540118257576451 12.453386033111938 46 7 0 1.7966547512671553 6 0 31 1 64 2 62 1 23 9 65 0 32 0 34 1 56 2 54 2 1 1
2589 1.2821366068287161 1.2007174726186365 10.999193183642161 175 102 112 1.138911153362417 64 393 65 418 57 349 52 357 55 497 58 362 53 329 51 152 56 188 55 141 58 178 50 95 36 207 34 234 64 138 65 107 57 159 43 213
2590 0.29099693165697682 1.2247278477984551 10.279391093213407 204 126 127 1.2662764210624091 16 48 30 30 31 32 23 29 17 30 10 33 32 26 34 31 65 29 60 14 57 22 4 25
2591 1.1761742841445437 1.7650809887053436 11.070133451464484 141 92 96 1.1143317174738943 57 222 56 191 34 169 16 158 8 250 7 99 15 92 5 144 9 119 12 108 14 122 11 98 18 108 31 103 31 201 62 125 61 121 23 85 10 118 10 94 19 122 28 69
2592 1.2523729219140041 -0.54977170597989611 10.934856359132667 131 79 80 1.1263837183164553 6 118 30 79 283 358 287 771 31 94 60 69 34 104 36 152 57 103 56 100 3 146
2593 0.49031898712908517 1.4531950702810441 10.39007037322231 136 68 71 1.2670591078836178 57 76 59 101 36 122 34 112 13 93 16 126 8 98 7 63 6 103 15 90 5 69 9 63 12 75 14 92 11 97 18 39 30 70 31 109 64 77 65 102 60 41 21 45 23 82 17 63 10 93 32 108 43 113 3 126 4 67 42 81 25 73
2594 1.0402308602879444 -1.351007146488598 10.821559457158564 123 60 63 1.1032781532900575 6 283 8 346 7 226 16 367 15 237 5 302 14 305 287 889 31 250 64 262 65 199 34 207 56 152 59 151 36 156 57 143 3 255
2595 0.10554737717243153 0.12684796929256659 9.9932170975662853 130 64 71 1.2657953396448092 8 439 287 661 283 307 17 205 6 288 21 241 32 241 34 226 57 205 55 338 76 354 58 313 54 211 53 282 36 251 2 371
2596 1.3091137360084564 0.71328180889271975 10.948389530937096 233 157 180 1.395418693793677 61 175 59 393 55 451 76 404 58 356 59 392 52 348 54 391 53 325 53 340 51 262 50 287 36 296 34 227 64 383 65 552 43 183
2597 1.1568065241054384 1.3701933405314994 10.927937208046567 117 61 64 1.4276606842523347 57 264 59 353 55 495 58 363 52 308 54 398 53 330 50 157 34 278 13 429 16 547 7 288 15 299 5 328 9 206 12 277 18 205 64 308 11 276 65 183 61 178 60 143 10 258 25 228 24 218 20 174
2598 -4.683372857903354 13.167903918481571 26.002625186884476 38 7 2 0.67415606156475283 32 13 34 56
2599 6.5925160796211468 1.7270461476184624 22.170407800974832 69 42 33 0.62073079848988344 56 5 42 2
2601 1.5683747340560323 -5.3528036900330802 12.837413898463783 130 77 69 0.73493332677398093 36 36 43 31 58 34 76 32 42 23 2 53
2603 2.2004504102048505 -2.7700433678920069 12.521442713242585 120 66 64 0.79933383326625185 36 47 64 294 43 38
2604 0.49663982898862119 -6.8580409594518592 11.625879195827125 167 98 87 1.3860051047638819 36 42 43 43 2 62 1 140
2606 0.97215978693205429 -5.8916514866790299 11.443183506972856 160 97 93 1.6086724999850783 36 136 43 59 2 225
2607 0.40479822422446299 -6.1084381742442506 11.450053676156303 169 93 84 0.62431034690290943 36 125 43 60 2 140
2608 6.1171325470121483 -5.967938880814792 20.692391907225861 26 0 0 1.6310353806268503 36 66 54 138 55 149 58 153 43 109
2609 2.2004470976375656 -0.53134506483040078 13.269553772962759 0 0 0 0.80990139416533968 53 143 60 327
2611 0.64766082457361807 2.3021675381547704 9.3559084096352034 44 0 0 1.1879127124739797 36 187 43 133
2612 6.2680753567831626 -7.112609311654583 19.624005989853707 167 145 132 2.1038201290220231 34 249 53 222 43 144
2613 0.38028863958090781 -5.8951511714891467 11.455530396415082 174 96 86 1.6808269316757167 36 168 43 161 1 319 2 224
2616 0.82765142866738839 -5.8871030185643836 12.19458497892669 135 67 58 0.90603122320956497 36 279 43 221 2 226
2620 0.51632191329473898 -5.8631017926171189 11.386057381396922 170 93 83 0.82519716962795053 36 277 43 266 1 370
2621 6.684676747287142 -7.0220788080322674 20.911139949645719 116 73 67 0.53768359966946411 54 406 57 374 43 272
2622 6.6866863337843929 -6.9075169761940431 20.450162701827935 66 22 18 0.87581560875354836 34 212 54 442 43 288
2623 3.3687377298047405 1.0832140022873433 13.95783900823824 77 27 27 2.6075621595220446 56 62 59 51 55 37 58 52 52 34 54 41 53 30 51 38 50 32 43 48 56 175 59 158 55 158 76 166 60 127 58 187 52 157 54 219 53 112 51 167 50 112 46 25 46 80 40 29 40 90 42 93 2 301 35 28
2624 1.5813499417069714 0.49869157521359536 11.17163303672387 143 88 94 0.84226449842959961 61 19 64 31 57 27 56 22 59 25 54 28 43 35 34 36 36 27
2625 0.62190858256632808 1.1929861515374058 10.553058858124331 195 119 133 1.1285039611829306 64 57 65 69 62 60 61 43 60 43 57 36 56 53 59 58 55 54 76 61 52 52 54 65 43 46 34 61 36 64 40 50 42 70 2 173
2626 2.0394903737250392 -2.139172679216145 12.485890705292315 122 70 67 1.1345971878850643 36 191 34 119 43 92 13 320 6 233 16 351 7 183 15 307 5 168 9 229 12 191 287 794 11 245 18 177 282 221 9 278 285 300 30 328 64 201 65 200 62 175 61 187 60 174 57 165 56 196 59 122 55 121 76 127 52 174 54 144 53 138 51 127 50 88 36 184 34 134 43 111 46 94 40 68 42 88 42 89 47 47 47 132 48 78
2627 2.0903803113791706 -0.40163288175788142 11.670246053357534 206 141 143 1.6274798047728478 16 243 57 102 76 57 52 61 54 82 36 89 43 65 56 362 59 325 55 308 58 299 54 271 53 267 51 248 50 221 50 52 46 145 40 46 40 155 47 36 47 135
2628 1.2624494251258112 -0.45120062898501989 10.865633235700344 170 101 105 0.6975773198414984 56 378 55 319 76 399 43 238 64 552 65 464 17 249
2629 10.72858242681647 -0.4459005424214339 23.468975493926195 49 20 12 1.1655982828074158 51 1 52 0 53 1 55 0 58 0 76 0 46 1
2631 3.3666952440489841 -7.6353133063923506 21.24470359267362 99 59 51 0.66065873689219723 50 5 51 7 56 13 46 5
2632 6.9830672933594773 -3.1775685160260831 5.8600781674238434 250 194 179 1.1198036390403272 52 17 55 17 46 9
2634 5.3364442554765237 3.8511182435844424 18.336600968835302 60 35 31 0.86121575222679991 50 22 52 32 46 16
2635 3.6422919475842019 -3.5388732808772714 2.8487598122520272 0 0 0 0.10236444629464678 52 28 55 41
2637 10.414677140675989 -10.334562704766187 21.240542005303357 191 144 128 1.4029973584854847 51 61 52 117 46 63
2639 2.9260897087907787 -2.9807567798279591 7.399964785006528 45 8 2 0.72266134957726036 56 69 46 111
2640 3.5764891610802514 -0.46473779196461201 15.38998877327732 0 0 0 1.5549219816379698 50 180 53 292 54 373 55 431 58 336
2641 12.164751129190167 -10.924981416840744 25.894055362639694 230 183 164 2.569484413436347 53 61 46 133 52 232
2642 2.6126146156186589 -3.5303487921173233 14.128860636949645 71 28 30 1.3236412532488089 51 392 54 437 46 167 47 127 37 62
2644 7.0080063191302413 -7.2684856270508709 21.951275296980022 55 11 10 2.2760050194168127 54 444 46 190
2646 4.4777904084576594 2.6813115466206083 17.426518174644112 98 64 62 0.86995444094136631 59 262 54 335 53 331 52 237 50 168 46 114 12 223 14 204 64 427 65 352 62 255 61 224 60 210 23 224 21 233 17 201 19 141 56 249 35 81
2647 1.8272762546256764 -1.4914262871567066 11.766204439882271 110 70 74 1.7097123998385952 50 320 59 456 58 470 52 456 53 399 51 388 50 352
2648 2.2399012813559676 -0.60712978516655125 12.038678212237983 128 64 67 1.1124512222075229 7 307 64 365 62 304 46 71 59 153 52 92 51 88 40 161
2649 8.5935217488817983 3.0215830510780135 10.497569457164667 53 13 3 0.5379941157561734 283 2 280 0
2651 6.526372876403661 1.4010534967266279 5.9176612724247786 0 0 0 1.3131276730689265 282 222 287 767
2652 6.4865420531612292 0.44855597271434733 4.3350938860562351 197 135 112 1.3892170145047724 13 110 280 56
2653 6.6845092813019367 3.8164038068863229 6.0680549648326876 111 22 4 2.3914149812503513 16 176 280 79
2654 1.5840109798215771 -4.2677172697024073 12.233697615789604 112 65 59 0.93793254207471166 32 163 283 130 280 89 287 254
2657 2.2883876656834419 -2.689714989597153 12.291783830783642 45 7 2 1.4909013899811534 11 239 280 126 16 331
2658 0.5447125816474091 -2.6309835109301187 10.893935894843219 164 102 103 0.69279293811873666 283 107 280 127 3 114
2660 6.2507438014611409 3.4240059832571967 5.0177390448529797 145 79 57 0.29717380072684629 282 165 280 162
2662 1.2259642986124042 -2.313333900980072 11.453233876440972 135 77 76 1.1275958906757282 287 803 280 209 3 212
2663 1.1093168722444193 -3.0086615452304892 11.575407435581086 131 65 67 0.31094890544088893 287 556 3 147
2665 1.5480610136343802 -2.6792068978903933 12.769503972358855 123 63 63 0.40541040058896016 287 880 280 304
2668 0.52992206876846459 -2.4216623035397329 10.50311273611366 136 73 73 1.0904745282227797 6 267 280 344 3 281 1 251
2669 1.0977689460001259 2.3985918459604614 11.462604066448002 148 94 100 2.1214115382562464 13 6 16 6 8 4 7 6 15 7 5 6 9 7 12 7 14 7 11 11 6 10 285 5 31 11 30 10 10 9 32 5 36 7 34 8 64 146 65 112 62 137 60 134 43 7 3 15 57 7 1 9 4 5 28 8
2670 1.5683598285330422 1.3632137409222478 11.1863325591763 139 89 94 1.3778119863199338 13 72 6 55 16 59 8 52 7 47 15 42 5 49 9 40 12 48 14 67 11 50 282 47 285 50 30 50 31 55 64 34 65 42 62 33 61 24 60 31 283 57 23 56 10 69 19 22 32 31 34 47 280 45 64 394 65 383 1 98
2671 3.412725933183931 1.4958759806520099 14.115630912176552 47 14 9 1.6036397608849244 13 46 7 46 5 38 9 44 14 58 18 33 285 161 64 61 65 56 62 58 61 56 21 75 17 38 19 42 32 76 280 165 30 209 31 218 57 35
2672 2.1253581656422864 -0.59652241106646764 11.808459747256908 134 81 78 0.9906589577017576 16 379 15 243 9 202 12 220 14 261 11 249 281 166 65 304 64 199 60 182 57 186 76 159 58 162 52 163 54 178 36 155 43 117 46 102 7 228 61 210 62 330 21 237 17 211 19 170 56 154 59 195 55 154 53 145 51 135 50 110 4 87 40 73 42 102 47 71 35 71 37 53 48 70
2673 0.099601024563961832 1.744386591543198 10.391884031823627 163 86 92 1.2781501124630226 8 137 7 159 15 205 5 78 9 68 12 80 14 123 11 79 30 69 13 115 31 66 21 47 23 86 17 74 19 43 32 106 34 114 43 115 64 59 65 94 62 139 60 50 36 189 57 93 42 87
2674 1.5314872306075453 0.68985949473474706 11.283956011948336 109 60 64 1.7095242454460255 16 388 283 347 13 348 13 346 16 251 8 295 14 269 11 204 31 260 64 133 65 251 30 219 62 186 61 173 60 108 10 257 36 118 34 100 57 108 59 110 1 192
2677 7.7233856728948558 3.8122021925447549 9.4998703846192765 101 59 47 2.083031682171864 30 6 3 8
2678 -0.70277662141246144 -0.39143342103198742 13.070629485523092 244 154 153 0.88969357132071503 30 29 3 18
2679 1.7367764609321141 -2.6259381885216788 12.67921852353761 106 45 44 0.4163442316069712 16 20 3 24
2681 6.2316762618144139 4.3723208340226689 8.140875915863921 98 25 8 1.7032110620715335 31 38 32 36 34 51 3 44
2683 0.90406923342585443 -4.3130971244649556 11.563311668667243 142 73 68 0.13828455951534882 280 86 3 60 1 52
2684 0.92642042622564136 -2.0494343676293867 10.503937674606096 0 0 0 2.05523246381766 280 135 283 113
2685 -1.6021341143298391 -1.4937603331066616 8.9895644424169703 246 161 156 1.555336421985362 13 262 3 72 1 94
2687 2.5030891456916113 0.081697986340641751 12.356221101247476 50 11 12 0.83430000805277382 31 114 3 93
2689 0.95362593779041982 3.6024548359032456 12.04542064082885 55 11 12 0.28535672036570403 32 116 3 128
2690 0.65465705386680462 3.679356241044772 11.826895233500503 54 9 11 2.2025944540638993 31 75 3 129 1 120 23 91
2692 -0.69031717552711491 -3.3090513870013858 9.9358891058066483 205 104 102 1.0846028087771948 32 134 3 141
2693 6.2001206186468005 4.261586035572007 7.5805091459468557 131 75 60 0.44043479141860553 30 182 3 155
2694 0.40785509944379994 -1.3560491451603101 10.048546214615003 0 0 0 0.37171533826042064 31 168 280 317
2695 -21.893639369605726 57.097168843958521 95.924684993112422 125 84 82 1.4312385114787731 13 287 3 190 10 248 4 124 25 274 26 248 24 206 29 185
2696 29.474292468510441 30.468742363728925 26.11093706876018 0 0 0 3.1621613175631595 16 442 31 288
2697 0.39056473802551706 -3.5254916577523723 10.458217517037125 142 70 66 0.071594146665736491 280 259 3 201
2698 -0.97700645603013359 -3.8350498193817955 9.6877952927396738 212 108 109 0.021510769477333928 32 248 3 245
2700 1.9502818716468966 -3.4410349516537893 12.966690898798076 104 57 51 1.3959921059442106 13 292 3 267 6 249
2703 -0.11759378296150604 -2.5304635049422641 10.033902227785175 111 64 63 1.0414614722428439 13 204 6 202 3 96 32 95 280 130 1 127
2704 -0.67487349587843981 -1.1174223712943008 9.6381282798847909 174 92 90 0.76563469178727195 16 370 12 216 3 164 9 195 287 460 283 240
2706 2.2209918916479103 -4.0355200017370718 14.268536935422498 99 52 46 3.5332278964244961 6 192 3 223
2707 -3.1838701088030348 -10.152850210522502 30.200287265067825 0 0 0 0.29003575354619049 6 305 16 540
2708 1.7538014672288846 -3.9878071098202046 12.379694264327696 68 23 17 3.2438507868888005 32 165 3 292
2710 -2.1391254293498658 3.038102165373934 7.6820046700443152 184 132 118 2.1145791447138684 10 16 4 8
2711 -0.36724922234412283 7.8069293451042796 18.265618058345893 58 33 29 1.1407444515582741 10 18 31 20 4 10 25 13 26 9 24 9 20 7 27 10
2713 -2.3127064572313398 5.9842008497604517 6.6102903400842488 109 54 41 0.23986682944306259 13 31 4 20
2715 1.6385579814822262 0.64427387627222321 11.260810083643056 90 44 46 0.99520151154910519 10 85 13 63 16 64 4 49
2716 -1.7444269836809014 2.4434358557329685 9.7556741161571594 179 126 122 0.51841106327562336 30 61 4 55
2717 2.5049214542098697 1.2152669280931725 12.400071676891919 55 16 17 0.50046125468896263 10 120 23 110 4 73
2718 1.1643553828521829 0.38236725494348428 10.293691334958472 0 0 0 0.90875979584271294 31 178 285 170
2719 -1.0402281459611582 -0.14713127043035856 9.4187364101733824 0 0 0 0.27029696664119535 14 117 16 163 6 97
2720 1.1064707522816526 1.4106068835365617 10.90679880663642 0 0 0 0.20058120451833344 281 183 285 311
2721 5.8734556955388948 4.5041959816986799 20.863057911295272 55 34 29 1.5266490816560225 281 289 4 132 284 217
2723 -1.6777851117292053 1.1452943558483788 9.2593525337756279 241 176 170 1.2246739452011066 13 71 16 125 8 88 4 24 31 29 10 59
2725 -13.49230426654416 35.664234411743124 61.217218889928802 0 0 0 1.4271786466887797 9 248 21 278 31 234 18 241 17 239 19 227
2726 43.787549453644473 -13.461200233594576 44.634801722577599 247 174 164 2.2080049327835765 51 32 40 0
2728 7.4146584021566744 3.6807409325211875 9.2851099306661506 70 43 32 1.001559993700798 36 10 43 8 42 6 2 5
2729 7.4841878241038238 3.7657835565680027 9.3620473502723076 83 50 40 1.7637022529860669 36 8 43 9 42 7 1 8 34 7 2 6
2733 4.3471918082182022 -6.1279559549564198 24.847631372365328 0 0 0 1.8662599000489069 36 44 56 57
2734 1.7915623078650962 -1.5372241112797815 11.90882170209014 136 90 92 1.3589372622459288 46 12 50 6 51 24 40 20 35 23 37 19 48 17
2736 2.3150429537032728 -2.7667738049043766 13.743807678691574 105 57 53 1.1054728545306998 55 59 40 37 47 43 35 40
2737 5.347719593148045 3.6115041834770381 19.266926907309095 42 14 10 0.45345665359601339 56 235 58 185 59 245 40 88 35 52
2741 4.3146178762527638 -5.7901567061367452 23.269819850364566 172 138 129 0.43789184075699444 56 212 40 127
2742 2.976711581747562 -5.2191971594330502 12.662776253812154 155 120 101 2.1166676370732369 53 368 40 128
2745 3.9654888081031596 -6.4575583770204847 25.19128636243596 143 106 80 1.5615842357555534 46 168 40 162 50 246
2746 3.0359009080730144 1.1154889756442066 13.655435299108099 113 70 66 0.31112855325636873 54 420 40 189 42 201
2747 1.5816767606681774 -4.7694293398702454 12.834600548637697 171 111 110 1.6910471051919043 56 134 59 134 76 8 58 92 52 80 54 87 53 66 40 2 36 67 34 129 43 61 40 55 42 10 1 215 35 58 37 31
2748 1.1395729635884464 -2.0584543054398652 11.274698640508248 168 107 110 1.8971124449188841 55 294 58 283 76 322 52 276 54 188 54 199 56 283 56 286 53 262 40 159 59 31 55 33 76 37 58 51 52 33 54 35 53 34
2749 0.41240255826241434 1.3070988397043253 10.308984621966902 142 78 82 0.69624777563939133 13 241 16 308 11 180 32 191 30 121 10 201 34 159 57 160 43 138 60 126 40 86 56 203 59 201 1 189 28 91 22 74
2750 3.0903121389637112 -0.14730090736893411 14.114188252487763 36 9 10 1.8481247168717492 56 231 52 284 53 142 47 61 58 294 55 300 35 51
2751 2.3536702260622397 0.58639558283025817 12.117474732492189 117 70 69 1.1479348075464706 36 145 57 251 40 79 56 177 59 244
2752 10.798652977338607 -9.8158946476028817 22.367447097701334 100 44 25 1.5441163809773444 46 204 40 182
2754 2.2423145983261508 -5.6006102504359747 14.216539068754683 87 40 34 0.012411934716842694 40 1 42 12
2755 6.957874624168606 -3.1596994183840241 5.403884268553524 250 186 168 0.52819928025609519 40 13 43 12 42 15
2756 7.0901723433286579 -1.7464287444299762 6.9659959970507206 182 108 87 0.56202864415973264 40 19 43 21 42 17 47 12
2757 7.2986048644509163 -1.2936280687202166 6.1457898180227044 224 152 128 0.76146665471828179 43 24 42 29
2758 6.4791984998116767 -5.2484078707484914 3.8140174052988804 248 192 174 0.18487438654321953 40 25 42 31
2759 6.9380353197188782 -2.9650366407925692 7.5147560351000768 171 98 79 1.2211423731417506 43 28 42 37 47 23
2760 2.1774870918184748 -2.3042042914287197 12.649485105763574 115 60 50 0.80199299600730789 40 32 53 41 42 43 47 30 35 38 48 28
2762 1.2009848642605951 5.1237830516674299 14.985760089648656 0 0 0 0.012827705781502344 36 34 57 37
2763 18.532892234199757 5.3455726527917742 17.850665921619072 213 145 122 1.3471519909831724 43 208 42 79
2764 2.8644450334916911 -2.5081040069903402 13.753000025419057 50 3 3 1.1778524862764508 36 160 42 106 35 61 37 43
2765 1.1047484728598835 -6.4447570256617919 12.598402386242983 124 65 59 0.61754634877555714 43 195 42 108 2 215
2766 4.1378224873215803 -6.4977334527305741 22.420015554902793 109 61 49 0.54966023988560975 40 95 43 164 42 111
2767 3.7545774282790112 -6.3618652974636225 19.548375279875991 146 97 83 1.9668512253643855 43 273 47 118 48 73 37 56 42 132
2768 3.7103683818605875 -5.8988246275644967 19.07735646171253 160 119 106 1.8829997465249939 43 202 47 91 35 116
2769 0.52960878460074789 -1.1223805603415018 10.705283334500768 155 93 94 0.27326686177599768 43 206 42 138
2770 3.6771349995716496 -5.8232161983040793 18.627288509985778 160 119 106 1.1790144976632377 43 223 47 109
2771 0.11043038558503745 -17.788164669113826 41.211091570382223 113 83 73 0.23673390366115632 61 431 42 166
2772 0.11043038558503745 -17.788164669113826 41.211091570382223 113 83 73 0.23673390366115632 61 430 42 181
2775 3.3127838270474159 0.55410999287213969 14.508805383916041 116 76 72 2.435288925525438 56 285 59 322 55 155 51 136 42 125 56 238 59 190
2776 1.8354033378503205 0.12597261151860931 12.760707340062675 115 61 59 0.94003861482624662 46 55 50 38 47 37
2777 10.018392350525509 -9.4136791231488122 20.742413561804963 0 0 0 2.8984379426750841 40 175 53 355
2780 18.813498333598705 2.0172384117806312 24.252130001616294 159 87 65 1.0820746090279618 43 23 47 7
2781 11.138203175044524 -5.7142637705970252 12.6692156978332 0 0 0 1.2765667713185311 40 9 55 21
2783 7.4230859764848391 2.7053494940054961 11.40980222925339 0 0 0 0.76609116246805076 40 14 43 22
2784 1.9797147428063697 -0.63247903863858834 11.709247060242026 83 37 40 0.44315193782149631 46 59 51 74 47 52
2785 7.4688624236101369 -7.3290646413189755 12.535980997909663 176 114 101 0.60103846065991517 76 370 47 65 58 453
2788 2.9003542202537682 -2.0630307850279452 14.552568651615465 48 9 8 0.73760204177252608 58 203 47 130 48 61
2789 5.3434430015098613 -8.0328257843367137 13.424513093360142 59 14 8 0.97319444432530822 55 266 47 154 35 118 48 93
2791 2.4126543322352969 -3.0755269014197935 13.561947614659511 114 70 69 0.31878644672143341 51 324 47 178
2792 8.258475427616558 -8.7313926161768727 18.600204033407426 113 61 48 1.8861020012560636 40 121 47 207 37 78
2793 2.5691554640201435 -5.5879619493698929 19.848759175751752 60 26 16 1.0381233312569251 53 333 47 221
2794 2.462996199173658 -4.148227149230844 14.106324498291826 68 42 41 1.1262460725675074 76 283 52 187 54 214 51 144 47 81 48 64
2795 2.7979956068467824 -2.8134677872204383 13.441573235488562 30 15 13 2.5447443835450874 58 264 47 93 55 280 76 292 42 90 58 347 52 179 53 186
2796 1.7754451324276015 -1.4555939234782695 11.863051484638079 140 86 86 1.3671400365224919 8 62 7 56 5 47 9 39 12 46 14 54 18 50 286 116 282 78 281 66 64 48 65 34 62 41 61 22 21 63 23 112 17 37 10 133 19 37 32 66 4 58 285 82 31 84
2797 8.9961001384328778 3.9211921425527572 9.0739627843687334 100 12 5 2.2112322227148797 36 1 1 2 2 2
2798 18.701008706578484 -1.9327779800834781 21.243743912568213 185 116 93 0.098343000548358345 36 3 1 18
2799 -0.53277706352125331 -3.7409753371008945 9.9548158252191037 219 115 116 0.45514012129259407 3 36 1 26 2 24
2801 6.277961024375041 4.0866751061455595 7.6856442017300219 110 52 38 0.61643713540914291 34 30 36 22 1 31
2802 6.360945808399423 4.1864809226170756 7.7951604700472297 110 52 38 0.56062782939382039 36 20 1 32
2803 -1.7930942827054168 -2.0101223205558085 8.618011909167727 225 111 110 1.9068388150164202 3 45 1 35
2804 -1.744553808896413 3.3093556648250093 10.396785324593139 111 63 51 2.0698093101101964 13 431 1 53 2 89
2805 2.6573266815411571 -1.3732594593232186 13.532020772160168 109 67 68 0.91923193638233891 3 118 1 91
2807 -4.5656052686181283 -19.055378281200763 54.699347749869574 221 109 96 1.9121139983735229 13 290 1 145
2809 -0.34665337944429775 -2.776776641059556 10.18889687080309 210 118 119 0.90751996177446792 3 144 1 155 2 154
2810 -0.82953331636988026 -4.1996138156026275 9.8101481653369955 234 132 130 0.84152445304661472 3 101 1 206 2 56
2812 0.76598983642010099 -6.4855115875898912 12.241698000219744 153 86 77 0.29990923764564981 43 132 2 214
2813 15.077530012429802 11.520432576688023 12.003845940670777 122 88 78 0.29891831408827046 43 187 1 297
2814 -4.3076315764373279 -19.510498891061481 54.515780526773 219 118 101 0.58968667631822458 13 395 1 340
2816 1.9728151084552688 -4.2468296617689374 13.527553505433705 85 32 28 0.8201138150702193 34 220 1 363
2817 0.29960384663695638 -6.0705019420387103 11.360712133133076 128 45 39 0.83466167661096957 36 199 1 372
2818 -0.10462553260918958 7.7417342325635188 17.932104367560346 64 33 28 0.56393345818244101 281 13 284 16
2819 2.2977581102670612 7.0915592035665664 15.981359194018655 51 10 4 2.4624483785864983 65 18 284 18
2820 5.9417360097070233 5.5274835167727341 10.062003150355595 111 23 16 1.9054883344160394 281 33 284 20
2821 6.4341553775007228 4.4495575002329009 8.3137341467093684 209 68 51 1.4242030075652916 23 66 65 55 284 28
2823 7.4594608201635779 3.2054559834081027 8.7659961579897203 182 121 102 0.94304787572596593 281 87 284 54
2825 6.3695883687204589 -0.037028331997102371 15.981741095727495 72 41 36 0.88915209391835703 65 53 284 62
2826 12.566496433126501 9.7019130015372603 36.211540337839665 25 1 0 2.2296823682333731 65 10 284 64 64 11
2827 5.4752672094497434 5.6590499708839177 8.5713875724067297 189 111 88 0.77380131094630245 281 210 284 74
2828 2.027882757319269 2.0584974484545628 11.932411422872896 206 139 156 1.1140394289798101 23 227 284 109
2829 7.8601017977123089 -3.8707487058547714 25.180342641471849 19 3 3 0.9027143888417134 65 110 284 111 62 111
2830 2.0197666737783733 4.0191727705972102 13.263645424884444 156 83 90 0.81272864166450842 282 262 284 119 286 187
2831 5.5186833514113767 5.5650937975929011 7.9986514717244752 220 152 129 0.0075766448746711935 281 243 284 126
2832 5.80401904777227 8.4611231088807113 12.787281637569373 73 37 23 0.78529613685576394 281 277 284 171
2834 16.588601406939052 -5.4332781382418869 19.183187789681728 166 101 83 1.5199177233617025 282 362 284 184
2835 3.1062024297180861 -2.2473753918680797 15.481190336497583 94 46 46 1.488083433028625 281 242 284 194
2836 8.3764879074529173 -0.76816324406589487 14.723899410922426 97 47 36 0.62396810722501317 281 312 284 208
2837 8.3764879074529173 -0.76816324406589487 14.723899410922426 97 47 36 0.62396810722501317 281 322 284 215
2838 5.8010861255906585 -4.1531938950472753 19.06880560128921 31 3 0 0.50498042707662483 281 329 284 241
2839 5.8139868810886393 -4.222601660450362 18.9933523891311 83 51 45 0.41519205771183226 281 328 284 246
2840 2.6876176479534823 -20.049749973174507 38.853793780480203 150 133 126 1.5160246789434995 281 320 284 226
2841 2.6876176479534823 -20.049749973174507 38.853793780480203 150 133 126 1.5160246789434995 281 313 284 228
2842 1.9507472193033941 0.28029792107516405 11.654462972015549 103 63 63 1.7592795162182637 12 188 281 258 284 166 18 204 287 365 5 189 21 215 19 175
2843 2.7628510647238236 -1.6620641558741851 14.197389675469969 130 80 81 0.20028074319012476 281 238 284 175
2844 -1.2701029592866147 4.4796879630033892 13.818697309700642 112 60 49 1.6017182172186117 1 33 2 8
2846 -0.81053199745982818 -4.4820270756566698 9.4608403724755625 226 129 123 0.10960929245520198 1 83 2 59
2847 -0.30825816860997718 -6.7308740083154905 9.9718079694429917 167 60 50 0.34660471198409637 1 303 2 134
2848 0.1947268552539545 -6.0251409967015777 10.996253020521321 187 97 89 0.40816358772249389 1 317 36 218 2 218
2849 -6.791662654637153 15.825705542659618 28.288691696408073 87 50 45 1.1635698094499163 1 296 2 272
2851 23.020874763950633 18.957210394986078 18.879394531162994 103 63 53 1.3149277744532837 1 362 2 368
2852 0.36780871557123601 -7.0819171015963551 11.323523463789154 167 80 70 0.68634782437572839 43 263 2 375
2853 6.6242190041010582 -7.5831680809058497 35.888099157773048 83 36 30 2.2716509125549633 36 318 2 383
2854 6.9890645180713742 -5.3099011565096594 14.054228643731619 78 29 21 1.1627572353038831 3 58 1 49 2 36 55 43 56 50 76 54 58 45 54 43 53 37 51 48 59 46 50 37 46 37 52 44 40 54 42 57 47 40 283 50
2855 2.1850793057869415 -3.3853874186670949 13.386161079371822 135 78 81 1.1349897278721559 3 268 6 196 1 209 2 126 56 93 59 68 55 52 76 65 58 73 52 58 54 71 53 44 51 53 50 44 46 38 40 31 42 46 47 25 35 35 37 28 48 27
2856 3.4405594720161616 -0.44972887009925433 13.207500895735086 0 0 0 1.7181831466392254 51 9 52 5
2858 3.4405594720161616 -0.44972887009925433 13.207500895735086 0 0 0 1.7181831466392254 51 10 52 7
2859 2.9486088142857447 -4.9118640766114732 28.755998194930399 63 29 20 3.1014806183497194 46 7 35 9
2861 1.7987244195845482 -1.5331829535612134 11.670630574215634 0 0 0 1.0454761943002608 40 24 47 16 50 15
2863 6.7418080385549439 -2.7734192590945059 6.853568753397 130 67 50 0.6249858174164078 40 15 35 27
2865 2.2615834468879892 -4.7243928011932619 14.354378236116407 78 34 31 0.8878736568261496 47 76 51 119 35 57 50 97
2866 1.864943242353617 -4.1922023146850851 13.213332362462436 98 49 45 1.3870749301154914 47 63 35 59 37 50 48 53
2867 2.2038398988284538 0.36796620950654713 11.645696340677114 58 16 17 0.21915598425648933 46 75 51 96 35 65
2869 4.9427533461643565 2.5958048333041943 17.68567990297683 60 35 31 1.6054019212356423 47 100 53 268 35 80 58 345
2870 2.6813566818750818 -5.599595556078703 20.876211178238986 96 59 50 0.94098899305144101 40 84 47 168 35 89
2871 2.7710779998204171 -5.4184621291835517 22.727275601680041 91 52 45 1.2369563155463681 47 171 50 338 35 90
2872 2.3933570234592962 -3.9532566417761874 13.757527754072203 85 50 48 0.97397724220302995 50 139 35 91 53 231 59 286
2876 2.0439164970654775 -12.401710189112071 21.130430687127966 35 21 15 1.8706397295183717 52 402 58 449 35 108
2877 3.9992128824541302 -7.0639572913160444 27.945784683741184 137 93 85 1.7699193945926615 51 314 35 111 46 193 50 363
2879 7.5721055286784704 -8.1433199848004154 16.626550632515084 133 86 76 1.0634373784272997 47 205 35 135
2880 4.2026290173612466 11.844938153842534 23.218845504814446 76 46 35 1.8903615649784726 15 4 25 8 26 3 24 5 20 3 27 4 29 6 28 7
2882 4.3962993491336801 8.4338243665179551 8.7451386283224686 156 54 42 0.89027630690348281 10 105 25 62 29 70 28 53 22 47
2883 0.59687699813810791 1.2361499777670548 10.409236039153347 202 121 130 1.3667182307365855 4 48 25 71 26 79 28 51
2884 -1.7155291742865166 6.2627924464724645 9.5969878258846091 136 78 67 0.72231332924371283 10 114 25 94 22 32
2885 2.7100418809486975 1.4582718405083588 12.062767932782686 46 15 16 1.3482886330811392 4 103 25 131
2886 -0.32917088810152556 3.0741583023712375 10.970535129501844 215 133 139 0.90367732798327649 8 239 25 135 24 101 27 116 29 115 28 57
2887 3.9072387633766335 1.5623660614331287 16.242401811993275 64 23 21 1.5758597883344936 8 49 25 161
2889 7.2649381424432367 5.2494561960493398 23.67426635559757 47 15 16 1.6599834245568166 10 169 25 187 28 55
2891 1.9109459207595203 1.4288731180674528 11.646459397030755 96 54 57 0.96898673501682919 25 178 8 164 7 126 15 142 31 127 64 101 65 132 62 128 61 131 60 83 23 143 36 120 57 114 34 96 43 105 284 110
2892 1.1098361809729387 5.0550271270498959 13.963233003111608 143 85 84 2.116319770669489 25 1 26 0 24 0 20 0 29 0 28 1
2893 5.7188578816140456 4.527502068628297 8.6224204571561245 76 28 16 1.3433247051550121 25 4 26 2
2896 5.081975664721206 10.020711757221926 9.4300601262587058 125 62 45 1.9822503145744823 25 16 26 18 24 14 27 9 29 14 28 14
2897 0.86646288730534438 7.8979793754869387 18.714460393414484 68 30 22 1.6539351491343603 25 39 26 29 24 20 20 21 27 23 29 25
2899 1.6792385816688353 7.8714197801939143 17.633224123431376 72 33 26 0.86697254481307573 25 23 26 34 27 17 29 24
2900 -1.0501861093655567 9.9771184147040231 13.771076167582994 88 51 43 2.3052393172969232 10 129 26 43
2901 -1.0501861093655567 9.9771184147040231 13.771076167582994 88 51 43 2.3052393172969232 10 104 26 47
2902 -1.3969035801521328 4.4707715610521008 14.994838459673643 101 54 46 1.3924116163835381 25 29 26 50 24 18 27 21
2903 0.32228568024065229 2.817068604706769 11.039739798633041 204 134 144 0.86766074968848916 25 76 26 71 24 64 20 79 27 71
2905 1.2306088376050586 1.2371519217124292 10.835080588774579 147 81 87 1.0105576606740858 25 72 26 80 24 51 20 51
2906 4.4828994035465213 7.9889497647141106 7.2331172772957348 209 115 97 0.84800628563335778 25 63 26 83 24 74 20 45 27 50 29 60
2907 4.6728551972307342 7.0235868342835639 6.9809649285725941 237 165 143 0.84624568165424141 25 60 26 85 20 88 24 85 29 59
2908 4.6206779516454608 6.6655912766744754 7.3186459531392414 220 140 117 1.5325622216251986 26 86 20 66 27 58 29 57
2909 4.5642720632448697 2.9977093268766652 18.338186736834992 78 46 41 0.57128321485421751 25 87 26 96 24 76 29 76
2910 5.1910224694656977 5.9521545450963833 8.5228702533299483 145 68 50 1.512330483625379 25 41 26 105 27 44 28 23 22 27
2911 4.5804414823554902 7.2383838950779724 7.3812396728332281 223 134 114 1.2180792762602748 25 108 26 112 20 104 24 109 27 118 29 72
2912 4.7253746190636647 6.6740277299301347 5.0352887421276371 244 188 170 0.46481325289258368 4 80 26 113
2913 4.5923818342164937 6.8698400317240962 7.6736159241341388 202 102 78 0.58876750400035882 25 107 26 116 28 65
2914 -0.45124128449263884 4.4903801194892754 13.71162215899025 147 88 77 1.1311410676656961 25 140 26 118 27 69 29 75 22 58
2915 -0.65229627934919787 2.555705270337512 10.358841310341989 209 139 147 1.3006488417249933 10 265 26 122 27 87 29 94
2918 4.5400046005724546 7.1412040099280452 7.1456274380660618 197 111 91 0.70768812155557681 25 168 26 156 20 113 24 142 27 117 29 122
2919 1.8404224908993236 3.9518287602231701 12.990365620911504 114 52 54 0.42408097617209817 25 186 26 175 29 174 28 159
2920 0.062781181987198079 4.2879267606845328 12.574712246245173 147 83 83 0.65370932513362379 25 188 26 176 22 119
2921 4.7604542172636064 6.5824888546187781 7.045770467896622 240 163 149 0.65448872374672262 25 147 26 192 24 137 20 102
2922 4.8105754618425287 2.7014813253009677 18.328249278000097 47 21 18 0.0007508764496796899 25 252 26 199
2924 -0.5533816629456052 2.0255147214314344 10.216492312671312 212 141 145 0.39411205454389631 8 483 26 205 24 184
2925 4.5438340781510815 2.6274351205158779 17.7787739525637 87 59 56 1.1652581579106349 25 249 26 206 24 190 28 120 22 104
2926 1.6342201316826379 3.9554378137138451 13.058025238336073 137 78 82 0.028637058453835466 25 256 26 207
2927 35.364809871196428 36.555112942541847 30.894345748615986 0 0 0 1.7132814467138722 8 341 10 281 31 290
2928 -20.437956553106044 53.292626437234105 89.033530426380111 125 107 105 1.1917069074068647 4 118 10 280 25 231 26 223 13 392 24 201 29 187
2931 1.9904614842520083 -2.4200913022579051 12.437106753419517 161 100 98 1.2343589046181382 36 131 34 118 42 91 56 155 59 141 55 117 76 117 58 131 52 98 54 98 53 125 51 126 50 90 43 89 46 68 40 66 47 101 1 233 2 176 35 74 13 403 6 230 7 218 12 171 287 573 30 246 64 244 65 185 62 210 61 202 60 173 32 209 57 136 34 133 36 107 1 290 2 157 37 42 48 55
2932 4.2635398829893401 8.3563937260010768 7.6622433669336862 136 28 16 2.0803444929870305 25 15 24 10 20 9 27 7 29 10
2933 4.3930514827893417 7.8506661760862526 8.3901560450457318 121 18 13 1.0778145177834642 26 19 24 16 20 19
2934 4.8858839876112485 7.1899045025305934 5.5683431552065867 250 206 179 0.94861183950924133 26 20 24 21 20 24
2935 4.8858839876112485 7.1899045025305934 5.5683431552065867 250 206 179 0.94861183950924133 26 15 24 27 20 23
2936 1.5523953466486595 1.4457577162289803 10.754010297342752 126 81 84 1.0303383576662195 26 36 24 28 20 14
2937 0.60595297294373218 3.0254364914957126 11.545929560761582 141 80 85 0.86922894095681791 25 32 26 38 24 29 20 30 27 31 29 31 28 34
2938 4.5375828725967109 8.4268769685516318 7.1017909822909351 178 107 82 0.74343536135305666 26 44 24 33 20 33 27 28 29 35
2939 1.4695418696278113 6.4188971319841537 14.68506659678317 92 45 41 2.1975765958615896 25 59 26 60 24 36 20 59 29 44
2940 1.0662539996906659 6.9585685186194333 16.478584636808236 96 62 52 1.2075847939006135 26 58 24 39 20 41 27 40 29 40
2942 -0.40721041148293846 10.593153608526325 12.851884258120174 93 63 53 1.3277033748500338 26 31 24 43
2943 0.50632898946113547 1.4684094967156822 10.388877774557043 135 74 79 1.2374130961712013 26 68 24 52 20 52 27 37 29 43
2944 2.5338648473272567 1.9661445298189995 10.982840271180173 35 4 1 1.1747474488583645 26 125 27 76
2945 1.2050633031865243 1.8736137407804023 11.323275156475217 150 101 107 0.98278179746272953 25 45 24 55 20 56 27 53 29 66
2946 3.1764970753253401 1.2800004911689495 13.975648364370594 84 43 41 1.0115472603293783 25 85 24 56
2947 5.1488157995822137 5.9737742839073631 5.650954835029105 227 140 123 0.79557697309017594 26 89 24 60 20 55
2948 5.0806077110197911 6.172101288175492 6.6618972000868615 218 139 124 0.70317551275073031 26 76 24 61 20 57 27 57
2949 4.7816592971994423 7.9138858910115912 5.2756485601498646 209 133 107 0.32052320576397525 26 119 24 69 20 68
2950 -0.3602479058412571 5.0827496460275112 14.630482133455635 124 72 59 1.6208393273968866 26 95 24 72 20 64 27 56
2951 -0.82228463631588433 4.3719410724043728 14.609245120620992 94 44 33 1.3563570734362393 25 79 24 77 27 70
2952 1.6182232428472032 2.1939033175453555 11.670908324922253 133 84 88 0.76946098881808522 26 91 24 80 27 73 29 78
2953 1.7520366350614047 5.2933018400877385 13.720136165738383 140 97 93 1.1233848361361241 25 48 26 73 24 81 27 68 20 63 29 74 22 68 28 58
2954 4.5529850609512987 8.812054459139679 7.5931856145676564 159 72 52 0.83639914337773325 26 162 24 87 27 79 29 87
2955 0.28188879161014252 2.2582231219604507 10.716221324594894 145 79 93 0.63554356989357608 25 54 24 98 27 54 29 83
2956 4.4962513250317233 6.7933921369761201 6.7301974218336706 206 141 123 0.66309214458750743 26 114 24 102 20 94
2957 4.6487575252776665 6.7348073410917175 7.5491196832170218 162 75 56 0.63418182466982742 26 170 24 112 20 103
2958 2.3371667523450741 1.6759251022116888 12.57238141698018 134 89 92 1.2551344317849784 8 251 24 127 27 107 29 96
2959 4.669393536975722 6.5485443054971091 7.1867409272926466 194 122 102 0.26252758301577489 26 178 24 134 20 142
2960 4.6657796059086376 6.6711844085874228 7.9464358860819564 161 81 62 0.34003240605157742 26 179 24 138 20 144
2961 4.4476046858151381 7.3242975930831458 7.5029210632580758 154 67 47 0.67318262154125863 26 157 24 143 20 105 27 142
2962 4.385972226511063 7.9688566703229222 7.4277328687228747 153 58 38 0.51053556887474227 25 114 24 163 27 124 29 103
2963 2.0837878394306206 1.2315125719508706 12.431299026944167 99 54 57 0.84712550010908405 26 202 24 165 20 169
2964 -1.6835252542876016 7.2000525616727487 12.770415752536126 45 13 9 2.6995614033723925 26 210 24 173 27 192
2965 -0.92642001743103408 1.4471458525370948 9.3990745339142396 172 108 106 0.89420651990420141 26 203 24 176 20 167
2966 4.7619088223675359 6.7434943997636809 7.1543712363117145 207 132 117 0.6480992159816823 26 209 24 204 20 182 25 270
2967 -0.85922783823091164 1.9324127169264289 9.9539227054091448 179 123 127 0.71780693377136473 8 445 24 209 20 180
2968 -0.74047425068225647 2.4545173447439712 10.419540811608146 189 133 136 0.43375725125751119 8 453 24 241 29 193
2969 3.1685551479956202 2.1785714919442509 14.685301352046434 50 11 9 0.19849667181569777 26 200 27 113
2970 0.37054322206728219 6.2814197779746861 14.931641356616634 87 40 30 1.7069402219837115 25 38 26 27 20 29 29 38 22 23 28 24
2971 -0.13770498994994065 7.066978044699372 18.260681390314947 90 58 45 0.45517014465157785 26 40 20 36
2972 4.5857794355055681 9.0188805404892047 7.532517563855853 132 51 30 0.84278159348719284 24 49 20 40 29 62 25 111
2973 -1.0323277473690111 2.1392080425735158 9.8273217400365809 206 151 148 0.5517488809224772 26 70 20 48 27 52
2974 0.81178424315612907 3.2967596432556139 11.881112845616904 161 100 105 1.7967855023953581 24 57 25 103 20 49 27 55 28 54 22 35
2975 4.6303002432560696 7.3485059583330203 6.3046318707279383 229 165 151 0.42531619121635494 24 71 20 67 27 60
2976 -1.0227606560453277 8.9934164262650285 8.0007445051454535 162 118 109 1.1897124532794501 26 108 20 71 27 63 24 67 29 85
2977 0.57729199155097433 2.3528476663445881 11.069080306137881 144 81 90 0.51004584572948253 24 119 20 97 27 110 29 140
2978 0.59485802654036879 4.8632389807832004 13.421042461471504 145 94 91 0.38723798011559923 26 117 20 99 29 92 22 101
2979 -1.5573059867405028 8.0377555953182362 6.9580003635383516 151 93 79 0.2840280245251684 26 142 20 106 27 125 24 152
2980 0.58797509493935884 2.3174256365084966 11.18004594327274 144 81 90 0.24397518956901518 24 125 20 109 27 103
2981 4.5677056564107312 7.0072979301417986 7.8301353767060489 148 51 35 1.2112791744065636 24 140 25 149 20 112 27 144 28 109 22 82
2982 4.685237077824504 7.4311865852481214 6.625198648729242 190 124 108 1.983100067300454 24 146 20 117 27 121 29 105
2983 1.159811084719913 1.7362586341610315 10.941963894877754 160 109 114 0.64410641367845234 24 126 26 149 20 123 27 80 29 101
2984 4.4504743314862392 7.0329472924442076 7.5149297940732929 180 83 64 0.5114208310356102 24 169 20 146 27 143
2985 -1.0122129921951335 8.6684280805672245 8.3345515687811105 108 62 50 0.12053440481633816 26 186 20 150
2986 3.7449008081849673 1.9571837549825843 15.872116362832484 52 18 16 1.1630991947446692 25 277 20 157
2987 2.3972031734508272 2.0361384088434287 12.701656371851399 126 77 80 0.58072419024917421 26 151 20 162 27 179
2990 1.9726387663736951 1.0836506471778886 14.87442386137117 163 107 118 1.1780573272892096 20 2 24 2 27 2
2991 5.5027070158251323 12.117698566330173 10.573879425331096 70 39 29 0.74037075911096617 20 6 24 8 27 5 29 15
2993 -1.8439335898324918 9.0340687315436448 7.1297444386638791 189 162 168 2.2716696956295812 20 35 27 39
2994 1.2240166387545266 5.1548094392524426 13.246634014175664 134 78 77 1.1093745579711463 26 62 27 45 29 48 22 46
2995 -0.67253707175201294 2.8635806876840277 10.516914576374647 222 164 162 0.5069212752461798 24 65 27 72 29 77
2996 -1.2504408402010518 8.442238504651721 7.7967002542334969 141 83 68 0.50461614061591653 20 120 24 89 27 100
2997 -0.58426830880054381 2.7140060541239301 10.366901995109663 217 156 161 0.58225690282934239 24 131 27 104 29 109
2998 -0.58426830880054381 2.7140060541239301 10.366901995109663 217 156 161 0.58225690282934239 24 158 27 112 29 93
2999 -0.12112325873471917 2.9848579367833095 10.874151097645816 175 105 113 1.4787669884453674 26 152 27 115 29 114
3000 4.4799723289847044 7.6024090751380893 7.1323917935131078 226 148 126 0.53027193858987121 24 148 27 122 29 124
3001 4.3099584804440569 7.8089110867088785 7.7502609085024901 197 86 69 0.92933212818846744 24 117 25 198 27 123 29 104 28 77 22 85
3002 1.3655556093242005 2.1196478995476276 11.359602134963476 134 80 93 0.24169601366394297 24 128 27 128 29 171
3004 -1.6166780052911738 8.2901510237881606 6.5824686726189636 179 130 126 0.91740757106738224 20 122 24 154 27 152
3005 1.2506694133990894 2.162142008237498 11.247452989062282 167 110 121 0.99839889007970639 24 203 27 163 29 211
3006 -0.58305516897584297 9.6162924226966311 8.5551002613285103 118 89 81 0.85196547971676007 20 116 24 200 29 172
3007 0.2377719113077795 2.4252052942891713 10.636960780520678 165 95 106 0.65059876261047001 24 211 27 187 29 192
3009 -0.99165194988521699 9.2918778073498256 13.143823438477053 33 12 9 2.4613756099969168 26 211 27 198
3011 1.83259481872735 1.6905693866890468 9.9263351169638803 80 46 44 0.073837379257317731 25 296 27 82
3014 9.8199370970756252 1.4600100808770715 14.648228725269577 0 0 0 0.80214772809305201 20 4 24 6 27 6 29 7
3015 6.126281527111999 13.522090988884846 23.18536059413692 20 3 3 0.55172428576305821 26 7 29 12
3016 5.0889024854293679 10.74924335003589 10.835570559468945 63 30 21 0.86051247376999451 26 16 29 16
3017 1.5846092334426449 1.3806993560553968 11.021281099421422 134 87 90 0.84917062040917801 27 33 29 29
3018 -0.72529004000777453 2.8944572643324675 10.347386107387422 230 171 175 0.17614934390092798 27 32 29 30
3019 6.0798856970144124 4.3587875478957079 7.9282140694296404 128 45 27 0.43404272571491392 25 33 29 32
3020 -0.65888919721554495 9.8577505325724832 10.058056910926496 91 61 50 0.36749491559856617 26 46 29 37
3021 1.2623206326896643 6.3491143698138499 13.631600645241187 99 51 47 0.50539410507985905 20 61 24 40 29 55
3023 -0.37547530223092146 5.0863053221981005 14.405114310479048 142 90 77 0.71994918491090865 25 101 29 68 28 40 22 48
3024 -0.67468324699148507 2.3094623999029653 10.270022397661938 235 169 174 0.50557853385615503 24 63 29 80 22 49
3026 2.0328320993994655 4.5511461057526006 12.943647246842509 54 10 9 1.607909323400289 24 193 27 188 29 116
3027 -0.78906666783621759 9.3103333523467402 11.43153741905672 0 0 0 0.77126743579559731 20 70 27 165
3028 -0.60648056558143326 9.1605714229075108 7.2812740684497257 133 110 102 1.2615549249014109 20 34 29 129
3029 5.9826400797001389 8.3636553979575208 12.745097211690213 90 50 35 0.74717184362919498 25 148 29 165
3030 3.1159011896643625 5.4748434177777909 15.977363100038129 48 10 7 1.0339321567976463 27 147 29 178
3031 0.53733589817641136 2.5643180886725414 10.84439265230699 196 129 138 0.37592774945619739 27 153 29 194
3032 -1.492983735191272 7.1450802790262395 9.9161473651978689 122 75 69 0.23201186270948848 24 120 29 203
3035 -0.47627514879587468 2.2890112349875755 10.615170216361616 195 126 134 2.2078323365003336 25 134 26 137 24 99 20 84 27 89 29 135 24 129 27 129
3036 8.199112876907579 3.9901903571515276 11.401930858106637 71 22 10 1.5968673736288777 27 3 29 3
3037 1.4492370103714618 1.6857260032938886 11.308815067714423 137 83 90 0.10630381351602625 27 51 29 81
3040 6.7551944695881758 2.0657590462735271 25.591017022997388 42 25 15 1.7869460768944274 35 1 47 2 37 2
3041 5.1529460116065078 -6.4194494120565446 17.471108795885943 45 4 0 2.0753634787450097 42 22 37 12 48 11
3042 2.2452331224108439 -0.82154720362627487 15.431686527822279 65 28 22 1.1907694477972337 54 25 58 28 37 16
3043 2.0480504321864608 -3.945367159333756 13.354581782227468 84 43 39 1.0787398962003156 47 21 37 21 48 23
